# .PCD v0.7 - Point Cloud Data file format
VERSION 0.7
FIELDS x y z
SIZE 4 4 4
TYPE F F F
COUNT 1 1 1
WIDTH 1517
HEIGHT 1
VIEWPOINT 0 0 0 1 0 0 0
POINTS 1517
DATA ascii
263.5968 22.503599 -0.10735688
263.49094 22.619608 -0.10774872
263.54883 23.233683 -0.089323737
263.38104 22.677692 -0.10392261
263.27179 22.658762 -0.096913844
263.47855 23.220158 -0.034019832
263.28323 23.975725 -0.11742324
263.15707 22.726936 -0.09402658
263.53259 23.234266 0.0089821909
263.14423 23.975346 -0.11392835
263.04617 22.727039 -0.087036036
263.40924 23.220572 0.0052289949
263.00467 23.942978 -0.10834278
262.92068 22.863419 -0.088126808
263.28543 23.237886 0.00040569046
262.92685 23.284416 -0.074290551
262.81509 22.770418 -0.075997889
263.16006 23.278233 -0.0054470431
262.9581 23.535955 -0.046476953
262.7453 23.751863 -0.091207884
262.69138 22.836763 -0.072943926
262.61786 23.67226 -0.084721416
262.57721 22.823925 -0.065862775
262.91388 23.225828 -0.011900414
262.46924 23.747068 -0.084242493
262.42441 22.997822 -0.067557678
262.36774 23.550974 -0.071928032
262.33026 22.874601 -0.055558119
262.38132 23.782795 -0.059750825
262.29346 23.258358 -0.05685987
262.18979 22.954266 -0.05223703
262.34412 23.277456 -0.040813979
262.11401 23.453753 -0.061131001
262.05811 22.967758 -0.045907628
262.36411 23.432117 -0.037559461
262.09033 23.790257 -0.061549719
261.99115 23.406065 -0.056806736
261.82281 23.337217 -0.05561424
262.1355 23.850426 -0.059510775
261.97897 23.663338 -0.057233382
261.79666 23.599741 -0.060803849
261.74277 23.162731 -0.040738504
262.03964 23.645195 -0.05727642
261.78705 23.836952 -0.065226629
261.75671 23.270475 -0.045259606
261.61069 23.154232 -0.033346727
261.97623 23.351353 -0.050400879
261.7814 23.36202 -0.047932304
261.61215 23.2952 -0.043728109
261.47284 23.15884 -0.026884409
261.87955 23.211143 -0.050315242
261.74377 23.052704 -0.036480058
261.51593 23.171007 -0.035689279
261.31387 23.210848 -0.022161862
261.89023 22.755901 -0.036363523
261.65738 22.924314 -0.032608081
261.43536 23.028517 -0.027885489
261.17487 23.207478 -0.015658908
261.85446 22.496544 -0.030070512
261.62173 22.669962 -0.02432961
261.29929 23.023083 -0.024430029
261.0549 23.149746 -0.006360685
261.82678 22.244036 -0.023940502
261.57224 22.478876 -0.017961619
261.2352 22.853279 -0.015853738
261.77765 22.074934 -0.0216344
261.51151 22.331001 -0.013500888
261.15598 22.728765 -0.0091188587
261.7403 21.893616 -0.017509183
261.4577 22.178001 -0.0081513422
261.07108 22.624359 -0.0023335125
261.73212 21.667744 -0.011795847
261.40704 22.032938 -0.0038780279
261.01144 22.477474 0.0051060021
261.70404 21.501251 -0.0078742662
261.36047 21.893799 0.0003066675
261.68204 21.338646 -0.0040713907
261.31982 21.748552 0.005400917
261.64966 21.210238 -0.0021680908
261.26385 21.64259 0.0076709921
261.61057 21.098955 -0.0011877435
261.22742 21.510262 0.0116569
261.62024 20.916756 0.0040963744
261.17648 21.406208 0.01483167
261.62332 20.75868 0.0084376344
261.14716 21.278748 0.018678136
261.61099 20.632896 0.010974466
261.11011 21.167433 0.021622377
261.63013 20.474524 0.016029345
261.0946 21.032709 0.025238289
261.6113 20.375864 0.017614787
261.07242 20.913115 0.028936787
261.6004 20.273056 0.020068334
261.00922 20.849291 0.029230876
261.59833 20.162083 0.022383627
261.03619 20.683771 0.035162386
261.58273 20.076363 0.023878438
261.02411 20.569988 0.038664933
261.55539 20.004864 0.023548435
261.00821 20.465277 0.042213432
263.50555 23.284422 0.23337856
263.38174 23.237757 0.23971754
263.45303 23.234627 0.31345871
263.25684 23.237127 0.24796119
263.52567 23.402525 0.39474812
263.33017 23.23995 0.31865001
263.13306 23.243473 0.25516722
263.40054 23.243832 0.38938966
263.20721 23.240271 0.32185587
263.0101 23.240807 0.26338077
263.47275 23.246655 0.45209765
263.27759 23.247145 0.3905873
263.08221 23.238632 0.32710284
262.88358 23.26021 0.27160332
263.34961 23.243961 0.45031288
263.15442 23.240458 0.39081356
262.95743 23.246992 0.33232138
262.71851 23.563408 0.28680715
263.22647 23.241264 0.44752821
263.02954 23.246811 0.39303827
262.83084 23.265388 0.33754727
262.62634 23.289097 0.28914827
263.10358 23.249571 0.44571215
262.90564 23.253141 0.39424527
262.65237 23.652859 0.35478029
262.49945 23.289503 0.29742485
262.97952 23.250896 0.44393387
262.77643 23.293587 0.39746261
262.57434 23.286242 0.34909806
262.37161 23.291927 0.30571362
262.85474 23.266237 0.44213367
262.65048 23.297958 0.39971092
262.44931 23.282602 0.35335091
262.24081 23.295416 0.31605291
262.67551 23.665728 0.46035025
262.52423 23.284332 0.40101054
262.32034 23.28204 0.3586666
262.10809 23.303934 0.32441407
262.59998 23.286018 0.43965378
262.39713 23.280722 0.40229967
262.18665 23.293571 0.36503744
261.97528 23.307457 0.33478913
262.47275 23.277403 0.43795758
262.26718 23.284168 0.40462235
262.05475 23.296066 0.37139812
261.8414 23.306999 0.34419361
262.34186 23.287857 0.43627897
262.13144 23.29673 0.40802664
261.91623 23.317692 0.37782997
261.70358 23.308619 0.35466379
262.20987 23.291336 0.43563792
261.99475 23.311312 0.41144311
261.78116 23.310246 0.38427275
261.56479 23.313255 0.36514333
262.0759 23.295851 0.43502983
261.85791 23.319889 0.41387683
261.64612 23.304798 0.39070982
261.42587 23.309895 0.37564564
261.93619 23.314478 0.43448928
261.72556 23.30238 0.41629502
261.50531 23.310463 0.39722297
261.27145 23.331831 0.3873629
261.79904 23.30905 0.43396327
261.58267 23.306076 0.42084995
261.35565 23.323301 0.40587685
261.12466 23.334621 0.39899108
261.66284 23.302603 0.4324224
261.44455 23.299677 0.42334419
261.20593 23.33214 0.41454214
261.51889 23.30831 0.43299019
261.29294 23.319542 0.42801461
261.37204 23.318069 0.43260041
261.14401 23.32235 0.4316799
261.22119 23.328905 0.43327922
263.54538 23.44841 0.83335137
263.41751 23.260731 0.81711298
263.50516 23.269318 0.89853245
263.29276 23.266102 0.82633936
263.38211 23.263641 0.9027552
263.16714 23.280493 0.83655792
263.4675 23.262257 0.98023957
263.25735 23.273003 0.90897071
263.04221 23.276863 0.84481007
263.55588 23.401896 1.0763199
263.34564 23.270555 0.98340476
263.13297 23.299374 0.9191373
262.91742 23.282234 0.85403651
263.43381 23.265093 1.0518484
263.22198 23.284897 0.98858839
263.01041 23.269674 0.92041087
262.78702 23.303724 0.86732411
263.31195 23.275385 1.0520084
263.09766 23.316257 0.99574119
262.88394 23.291082 0.93062741
262.66302 23.298079 0.87656397
263.19101 23.279657 1.0521675
262.97705 23.288511 0.99397379
262.75729 23.303486 0.93886989
262.53525 23.300512 0.88785225
263.069 23.280951 1.0523531
262.85123 23.294891 0.99921596
262.63318 23.293833 0.94512153
262.40173 23.31706 0.90120769
262.94601 23.284262 1.052551
262.72458 23.309294 1.0064529
262.50342 23.300299 0.95443457
262.27106 23.323553 0.91453797
262.81937 23.301653 1.0557801
262.59958 23.307652 1.0097002
262.37192 23.318804 0.96574891
262.14011 23.317045 0.92590553
262.69443 23.305006 1.0580133
262.46985 23.31711 1.017005
262.24301 23.317249 0.97406697
262.00638 23.321596 0.93929517
262.57022 23.296337 1.0582632
262.34097 23.320549 1.0233091
262.11111 23.316755 0.9844355
261.87445 23.315109 0.95268023
262.44327 23.298729 1.060535
262.21103 23.319008 1.0296454
261.97836 23.32128 0.99480772
261.73865 23.313702 0.96712255
262.30978 23.32226 1.0668716
262.08011 23.320484 1.0359911
261.84528 23.310804 1.0042228
261.60089 23.315334 0.98259193
262.17972 23.319708 1.0692115
261.9472 23.320002 1.043378
261.70761 23.318426 1.0166756
261.4498 23.347233 1.0022258
262.04776 23.3202 1.0735781
261.81128 23.319576 1.0508186
261.5679 23.324089 1.0301697
261.30792 23.339943 1.018792
261.91476 23.319706 1.0769657
261.67538 23.320152 1.0592561
261.42142 23.339886 1.0447603
261.1698 23.323576 1.0333128
261.77975 23.316256 1.0813975
261.53271 23.330864 1.0697901
261.27661 23.339643 1.0583611
261.64371 23.311823 1.0858499
261.38617 23.345655 1.0823841
261.13559 23.329329 1.0719185
261.49152 23.34672 1.0974945
261.24222 23.339388 1.0929843
261.35239 23.338345 1.1020119
261.21021 23.326029 1.1075943
263.38684 23.264668 0.94367409
263.46378 23.328032 0.8721233
263.26602 23.271952 0.94782406
263.3403 23.259314 0.86350942
263.1434 23.288277 0.95498377
263.42578 23.258465 0.777964
263.21753 23.27063 0.86668402
263.01886 23.306641 0.96217358
263.30066 23.25581 0.77621496
263.09283 23.285984 0.86988294
262.89746 23.285923 0.96440351
263.39301 23.260796 0.67752951
263.1759 23.270155 0.77641732
262.97043 23.266281 0.87012827
262.7738 23.298271 0.97259229
263.26697 23.264151 0.67278177
263.04828 23.291561 0.77765322
262.84387 23.287676 0.87534565
262.64709 23.309673 0.97983778
263.14011 23.276527 0.670026
262.9248 23.271866 0.77391708
262.71716 23.301071 0.87958592
262.52307 23.30402 0.98607808
263.01132 23.29294 0.66729468
262.79623 23.294294 0.77716774
262.59195 23.290428 0.881859
262.39441 23.317463 0.99435347
262.88486 23.276299 0.66260386
262.66727 23.298717 0.77746999
262.4632 23.300859 0.88614357
262.26559 23.320906 1.0026573
262.755 23.286736 0.66090733
262.5401 23.292103 0.77676797
262.33524 23.301275 0.89043868
262.13766 23.32033 1.0099547
262.62317 23.29921 0.65924084
262.40836 23.306587 0.77909517
262.2016 23.316809 0.897798
262.00696 23.327816 1.0202826
262.49295 23.293644 0.65559012
262.27545 23.31209 0.78146589
262.07251 23.310242 0.90113109
261.87595 23.323298 1.0276451
262.35812 23.306179 0.65597701
262.14249 23.313593 0.78284806
261.93854 23.308775 0.90653902
261.74771 23.306721 1.0339884
262.22308 23.307713 0.65439552
262.00943 23.311098 0.78524148
261.80649 23.303268 0.91192263
261.60812 23.31938 1.0464627
262.08987 23.300205 0.65180397
261.87341 23.310659 0.78768289
261.66873 23.311878 0.91937339
261.46945 23.328018 1.0579307
261.9491 23.313856 0.65329516
261.73355 23.316298 0.79117864
261.52789 23.316545 0.92688924
261.32962 23.329678 1.0694364
261.80807 23.315504 0.65282083
261.59265 23.320957 0.79569495
261.38034 23.333349 0.93649584
261.19061 23.322315 1.0789503
261.66504 23.316191 0.65238512
261.44968 23.320654 0.79926139
261.2355 23.337093 0.94508588
261.52194 23.313879 0.65295774
261.2999 23.330484 0.80492437
261.09622 23.318726 0.95163149
261.36826 23.330774 0.65467298
261.15192 23.330275 0.80858022
261.21729 23.333616 0.6573742
263.41837 23.259424 0.36302644
263.48322 23.523069 0.29819205
263.29614 23.245729 0.36725405
263.35788 23.24736 0.29313049
263.17502 23.237015 0.37144953
263.4267 23.257845 0.21485677
263.2348 23.243675 0.29434803
263.05042 23.255373 0.37663963
263.50906 23.682112 0.12230071
263.30219 23.234175 0.21314958
263.11087 23.249006 0.29555789
262.92737 23.250698 0.38185936
263.37961 23.23646 0.12073991
263.17929 23.24448 0.21132781
262.98679 23.24634 0.29679048
262.80267 23.263058 0.38706654
263.25345 23.235813 0.11500374
263.05426 23.245825 0.2095674
262.862 23.256693 0.29900381
262.6178 23.67667 0.41034985
263.12851 23.246147 0.11021825
262.92819 23.246187 0.20782773
262.73349 23.283119 0.30224308
262.54645 23.296913 0.39958021
263.00339 23.247484 0.10545834
262.80151 23.267565 0.20604625
262.60107 23.313618 0.30454266
262.42218 23.281256 0.40384927
262.87546 23.257874 0.099726669
262.62585 23.60593 0.20734964
262.47943 23.280901 0.30580691
262.29346 23.292692 0.41013068
262.74655 23.27128 0.094004363
262.54364 23.282402 0.20263444
262.34961 23.289349 0.30811539
262.16071 23.301207 0.41649216
262.60504 23.357937 0.088324927
262.4137 23.287842 0.20195195
262.21869 23.294813 0.31045029
262.03168 23.296646 0.42281908
262.48367 23.292192 0.083666086
262.28268 23.291298 0.2002932
262.08762 23.290281 0.31281361
261.89319 23.320271 0.42924526
262.3526 23.294641 0.079010665
262.14868 23.294811 0.1986881
261.94904 23.311899 0.31624597
261.76105 23.309769 0.43564287
262.21945 23.293129 0.074402407
262.01187 23.308382 0.19810809
261.81314 23.317459 0.31867033
261.62613 23.310322 0.44206291
262.08249 23.303688 0.068831734
261.87396 23.316969 0.19656034
261.67987 23.302967 0.32109788
261.4873 23.314949 0.4485431
261.94916 23.292177 0.0642519
261.73965 23.303488 0.19600342
261.53799 23.31064 0.32362387
261.34158 23.324709 0.45613417
261.81006 23.294773 0.058739759
261.59583 23.316189 0.19455163
261.39612 23.316317 0.32715538
261.19873 23.328415 0.46368858
261.67084 23.290375 0.054247357
261.4538 23.317854 0.19409518
261.25018 23.318068 0.33076984
261.52774 23.29105 0.049812291
261.3078 23.320597 0.19370744
261.10223 23.321856 0.33341455
261.2041 23.757168 0.03344686
261.15396 23.332487 0.19343722
261.12616 23.550591 0.032362543
261.08905 23.277245 0.034713913
263.43002 23.209019 -0.051124103
263.63861 22.994833 -0.13134257
263.4754 23.220036 -0.097973548
263.6412 22.00165 -0.11589687
263.5174 22.817102 -0.12272085
263.54102 21.826523 -0.10765934
263.4054 22.7092 -0.11844064
263.20694 23.808111 -0.12363553
263.45059 21.636217 -0.097558409
263.29926 22.536188 -0.10910164
263.07193 23.752649 -0.11907384
262.88892 23.741285 -0.048750635
263.36685 21.486782 -0.09068089
263.19781 22.401087 -0.10294175
262.92526 23.883415 -0.12377121
262.80911 23.253763 -0.025093557
263.28961 21.364223 -0.085987136
263.10913 22.197746 -0.091839813
262.85574 23.2407 -0.089907609
263.21469 21.259623 -0.082380176
263.01508 22.14151 -0.090011232
262.69171 23.520796 -0.10266954
263.14584 21.158911 -0.077892095
262.93948 21.941921 -0.080153011
262.60098 23.257492 -0.088379584
262.31174 23.885202 -0.030754609
263.08197 21.056105 -0.073487766
262.86581 21.7943 -0.072460227
262.48761 23.180624 -0.083151907
262.28677 23.333641 -0.006920333
263.03174 20.877041 -0.06413649
262.79825 21.652565 -0.064891838
262.32565 23.353676 -0.090681985
262.97058 20.816183 -0.062886871
262.71548 21.614111 -0.065310895
262.27716 22.990574 -0.071898445
262.92706 20.674997 -0.054750819
262.64496 21.530432 -0.061835203
262.20639 22.782896 -0.061107095
262.87567 20.598955 -0.052637599
262.59042 21.390451 -0.054505054
262.09845 22.731924 -0.058042455
261.68875 23.542952 0.0072850743
262.83105 20.51079 -0.048615817
262.53345 21.282513 -0.050211724
262.0256 22.574286 -0.050339125
261.63779 23.267895 0.01989094
262.8017 20.37834 -0.040755797
262.47958 21.178522 -0.044983614
261.92178 22.529236 -0.047363102
262.76886 20.275953 -0.034909185
262.42212 21.098597 -0.04175185
261.86749 22.346249 -0.037928913
261.12009 23.883709 0.012633483
262.73911 20.179508 -0.030133152
262.37427 20.997488 -0.037639424
261.78488 22.257799 -0.033224501
261.11154 23.521847 0.027696272
262.70767 20.099096 -0.02636666
262.34003 20.874125 -0.031715229
261.69562 22.19047 -0.030454252
261.07196 23.269573 0.038040284
262.66965 20.044806 -0.024548564
262.29932 20.778887 -0.02674526
261.60364 22.137197 -0.027670147
262.2702 20.662426 -0.021930233
261.52225 22.060722 -0.024017582
262.24329 20.555929 -0.016179595
261.50937 21.845953 -0.014246739
262.20297 20.484682 -0.013277532
261.42819 21.783474 -0.01163382
262.16562 20.410378 -0.010420604
261.35291 21.711885 -0.0081028026
262.12744 20.346088 -0.0085740583
261.32028 21.568489 -0.0021575147
262.10483 20.256512 -0.0039431504
261.23444 21.523098 -0.00050332583
262.07739 20.17902 -0.0012565821
261.1875 21.416975 0.0046052625
262.06079 20.090328 0.003264149
261.16885 21.271315 0.010305795
262.01895 20.046106 0.0031257046
261.07239 21.246124 0.011100054
261.04129 21.130701 0.015948014
261.00537 21.026369 0.019854289
263.67419 20.85392 -0.081606731
263.60742 20.864185 -0.07843411
263.63297 20.950705 -0.084109992
263.53891 20.888483 -0.076265343
263.65622 20.963272 -0.083558559
263.56183 20.942047 -0.081811614
263.47141 20.913761 -0.07411731
263.67868 20.935841 -0.08489307
263.58344 20.918642 -0.080140091
263.49161 20.928371 -0.078517072
263.4025 20.917065 -0.070888989
263.60309 20.848259 -0.080316722
263.51251 20.867973 -0.076740362
263.423 20.893667 -0.074198768
263.33151 20.973406 -0.071757056
263.53241 20.754585 -0.074812934
263.44473 20.824249 -0.073414177
263.354 20.893967 -0.072961599
263.25702 21.000814 -0.070489325
263.46588 20.669832 -0.070406117
263.37781 20.774506 -0.070088834
263.28452 20.866276 -0.069645137
263.1861 21.002159 -0.06621971
263.40164 20.603033 -0.068085946
263.31451 20.700697 -0.06476713
263.21909 20.840509 -0.066405915
263.11417 21.00252 -0.062929206
263.34299 20.511135 -0.061802659
263.25348 20.643843 -0.061529212
263.15195 20.832775 -0.064181954
263.03864 21.027946 -0.061637901
263.28842 20.424158 -0.057604834
263.19461 20.595949 -0.058352657
263.08737 20.799992 -0.060940716
262.96747 21.016293 -0.057331316
263.23453 20.376167 -0.055517562
263.13852 20.536003 -0.054195829
263.02475 20.764174 -0.056726892
262.89172 21.028725 -0.055003207
263.1842 20.30311 -0.051431086
263.0856 20.483 -0.050112553
262.96509 20.726299 -0.052561063
262.82159 21.020052 -0.050723057
263.14066 20.216927 -0.046433043
263.03174 20.437008 -0.048030969
262.90265 20.702475 -0.050381031
262.74661 21.019468 -0.048375871
263.09824 20.138721 -0.042475462
262.98544 20.364878 -0.043019067
262.84494 20.661562 -0.046242435
262.66885 21.030937 -0.046009142
263.05701 20.070494 -0.038564216
262.94034 20.301725 -0.039050467
262.79004 20.610596 -0.042129084
262.60977 20.968056 -0.038790599
263.01416 20.024296 -0.036679409
262.89536 20.247572 -0.035107475
262.72968 20.590733 -0.039996207
262.53101 20.980545 -0.036408823
262.84955 20.20343 -0.033174686
262.6835 20.523603 -0.033998668
262.45398 20.977997 -0.034020174
262.81705 20.118042 -0.027376426
262.63553 20.469507 -0.030002009
262.37793 20.973434 -0.03064389
262.78473 20.043652 -0.021609429
262.58566 20.420446 -0.025983773
262.31616 20.928602 -0.025422536
262.74017 20.014486 -0.02073702
262.53787 20.375347 -0.022012703
262.23718 20.929092 -0.023006639
262.47861 20.362457 -0.021917295
262.16962 20.895367 -0.018709058
262.43564 20.308266 -0.018010063
262.10211 20.865643 -0.014422863
262.38699 20.271181 -0.015043676
262.03174 20.842972 -0.01010289
262.34219 20.226025 -0.012126096
261.96414 20.809246 -0.0068051461
262.30325 20.173756 -0.0082961228
261.91504 20.746174 -0.00076532981
262.26434 20.12249 -0.0044689775
261.85141 20.710373 0.0034663689
262.21576 20.091402 -0.002519489
261.74307 20.747416 0.003317069
262.17307 20.052202 -0.00065459864
261.65991 20.738979 0.0048302752
262.13132 20.010986 0.0021979406
261.61081 20.674908 0.010872933
261.5383 20.647274 0.014243062
261.51758 20.549664 0.020860614
261.45093 20.512918 0.024149001
261.38431 20.478174 0.027431684
261.23633 20.537956 0.024935866
261.19803 20.462679 0.030813029
261.16757 20.38225 0.035561472
261.12543 20.318045 0.040479068
261.05969 20.276281 0.043763783
261.22153 20.210691 -0.11979341
263.64355 21.073879 -0.079286411
263.57123 21.108273 -0.077114433
263.61304 21.688534 -0.095202841
263.49771 21.13069 -0.073893189
263.66995 22.321529 -0.10767581
263.52847 21.656155 -0.090661809
263.42383 21.192108 -0.074758492
263.56772 22.198483 -0.099615321
263.44275 21.613798 -0.085076913
263.34653 21.227598 -0.072502837
263.61691 22.739616 -0.10973869
263.46915 22.113361 -0.094707936
263.35739 21.593433 -0.081550613
263.26721 21.263123 -0.071212493
263.50641 22.55171 -0.10238316
263.37604 21.999136 -0.087826811
263.27316 21.582047 -0.079065517
263.18658 21.280674 -0.067856997
263.40424 22.327644 -0.09308695
263.28613 21.895849 -0.082026795
263.18985 21.562645 -0.075576417
263.10684 21.293209 -0.064505376
263.30988 22.14843 -0.087031633
263.20053 21.809481 -0.077341191
263.10913 21.52319 -0.071085721
263.02527 21.314777 -0.062143166
263.22104 21.995113 -0.081132278
263.11792 21.723055 -0.072707392
263.02667 21.496769 -0.067595161
262.94711 21.304279 -0.057764664
263.14355 21.808578 -0.073352061
263.04471 21.602448 -0.066155545
262.94623 21.472311 -0.064144477
262.86343 21.319889 -0.054352008
263.06973 21.655977 -0.067714386
262.96259 21.541016 -0.062588528
262.86646 21.429838 -0.05966302
262.7804 21.314486 -0.049900558
262.99811 21.515333 -0.062143363
262.89008 21.460394 -0.059143331
262.79166 21.385269 -0.055262558
262.70023 21.302029 -0.044482302
262.92911 21.409637 -0.059700146
262.82242 21.371681 -0.054763183
262.71695 21.345701 -0.050875463
262.60983 21.334764 -0.042993989
262.86963 21.277763 -0.054360427
262.75415 21.303982 -0.051421843
262.64505 21.296076 -0.046513416
262.52206 21.345449 -0.040498726
262.81805 21.138737 -0.049140114
262.70102 21.18799 -0.045228731
262.56769 21.276556 -0.04412777
262.43799 21.339067 -0.036027335
262.76038 21.049828 -0.04693234
262.64243 21.102104 -0.041012019
262.49512 21.244944 -0.04179633
262.35776 21.324608 -0.031603575
262.72266 20.902538 -0.03993265
262.58417 21.033213 -0.037840687
262.42712 21.191242 -0.037492625
262.26981 21.325296 -0.028081687
262.68811 20.765188 -0.034011371
262.53165 20.952211 -0.033740968
262.36121 21.139503 -0.033228822
262.19232 21.295786 -0.022669733
262.65292 20.646852 -0.029123561
262.48401 20.864117 -0.02970884
262.29633 21.090746 -0.028990306
262.10617 21.286442 -0.018155757
262.62274 20.528419 -0.024322074
262.43079 20.798128 -0.026631879
262.23138 21.038986 -0.024743771
262.01038 21.29628 -0.015519679
262.58224 20.450182 -0.022437304
262.39783 20.690752 -0.021808039
262.18289 20.957911 -0.01971327
261.92896 21.271843 -0.011051893
262.55148 20.354763 -0.018679976
262.36499 20.590376 -0.016003108
262.12006 20.912111 -0.016517168
261.82816 21.281776 -0.0083294809
262.52478 20.263266 -0.015002429
262.32556 20.514122 -0.013141096
262.06686 20.848125 -0.012445712
261.7428 21.260414 -0.0038006424
262.49625 20.180801 -0.012314308
262.2872 20.440851 -0.0093045486
262.01376 20.786142 -0.0073797447
261.63702 21.271444 -0.00099457079
262.47263 20.094244 -0.0097017959
262.24893 20.373573 -0.007483752
261.97424 20.703894 -0.0025019858
261.53601 21.269382 0.0027598052
262.44531 20.02376 -0.0070630554
262.21945 20.293133 -0.0037838533
261.92029 20.651924 0.00055477466
261.46219 21.221798 0.0081509016
262.19104 20.21567 -0.00010927026
261.85565 20.617157 0.0027561095
261.36789 21.203608 0.012827095
262.16272 20.145206 0.0035465886
261.7803 20.598597 0.0041046957
261.2677 21.19153 0.016590996
262.13638 20.073704 0.006170739
261.74878 20.515196 0.0088469945
261.18301 21.154152 0.021145402
262.08966 20.035591 0.0070694475
261.69196 20.470282 0.011936815
261.09836 21.116774 0.025699798
261.64291 20.415215 0.014915273
261.59784 20.356073 0.017835356
261.57724 20.269463 0.022395764
261.51166 20.237715 0.024606334
261.44699 20.203947 0.025805138
261.42947 20.120277 0.030305699
261.38348 20.068151 0.032224473
261.34833 20.004822 0.03598246
263.58197 23.782803 0.012436752
263.452 23.244244 0.033954546
263.51279 23.436289 0.097460918
263.32809 23.243631 0.042102788
263.5798 23.741245 0.16459507
263.38818 23.24465 0.10406905
263.20319 23.245037 0.049263101
263.45126 23.244608 0.16498634
263.26517 23.241011 0.10820867
263.07764 23.263456 0.056395154
263.51465 23.267546 0.21884312
263.32715 23.239979 0.16514651
263.1413 23.247385 0.11133894
262.9527 23.261862 0.063563503
263.39185 23.229877 0.21605758
263.20419 23.244329 0.16626517
263.01642 23.252781 0.115489
262.82599 23.273306 0.071731418
263.26791 23.239235 0.21218088
263.0802 23.246698 0.16640662
262.89154 23.257179 0.11964173
262.65295 23.585674 0.07399492
263.14398 23.246595 0.20930938
262.95523 23.250086 0.16656263
262.71796 23.594559 0.12085573
262.56961 23.296244 0.086119361
263.01984 23.243959 0.20646466
262.82758 23.269531 0.16772747
262.63235 23.298155 0.12703435
262.44067 23.294727 0.094356619
262.89212 23.26539 0.2026249
262.65698 23.552845 0.16901697
262.50708 23.281557 0.1312433
262.3071 23.312302 0.1016295
262.72394 23.572655 0.20081607
262.5708 23.283442 0.16914149
262.3725 23.302141 0.13552588
262.17621 23.312824 0.10989593
262.6344 23.289303 0.19703048
262.43994 23.293943 0.16938238
262.24341 23.295616 0.13977714
262.04333 23.315384 0.11819155
262.50351 23.299795 0.19327198
262.30795 23.296465 0.16966195
262.11151 23.299149 0.14405341
261.90463 23.325058 0.12657203
262.3743 23.293253 0.19052431
262.17508 23.303007 0.17094792
261.97284 23.314812 0.14841844
261.77158 23.316618 0.1348971
262.24213 23.290768 0.18681788
262.03827 23.315622 0.17128706
261.83582 23.311441 0.15379965
261.63074 23.320332 0.14332817
262.10336 23.307413 0.1841813
261.89932 23.320278 0.17168215
261.69785 23.311089 0.15819025
261.48514 23.336138 0.15181346
261.96637 23.313023 0.18153962
261.76315 23.312881 0.17305741
261.55508 23.321829 0.16263773
261.34125 23.336908 0.16030437
261.83017 23.308613 0.17790762
261.62027 23.321613 0.17351085
261.41306 23.318552 0.16710542
261.19635 23.335701 0.16981775
261.68622 23.316355 0.17438163
261.47827 23.322327 0.17396845
261.26135 23.332464 0.17170027
261.54126 23.324116 0.1708729
261.32938 23.330172 0.17452818
261.39911 23.321819 0.16733913
261.17941 23.334038 0.17511588
261.24142 23.344826 0.16401471
263.53922 23.436932 0.52606732
263.41245 23.245306 0.52171171
263.49435 23.272957 0.60024047
263.28876 23.25769 0.52982509
263.37015 23.260338 0.60442144
263.16403 23.2661 0.53896636
263.45129 23.252983 0.67804468
263.24719 23.2617 0.60954756
263.03912 23.265507 0.5471319
263.33047 23.262299 0.68011522
263.12354 23.276079 0.6156559
262.91354 23.280931 0.55627167
263.41141 23.25292 0.74374539
263.20557 23.267693 0.68326551
262.99957 23.275461 0.62080461
262.7554 23.514065 0.58246678
263.28952 23.261248 0.74283642
263.0795 23.313124 0.68934262
262.87283 23.284899 0.62697816
262.6571 23.297884 0.57567495
263.16489 23.281637 0.7449466
262.95679 23.27746 0.68855149
262.74329 23.304399 0.63517648
262.52829 23.300371 0.5859012
263.04062 23.271002 0.74212331
262.83099 23.286875 0.69270808
262.61533 23.302858 0.64139682
262.39667 23.311918 0.59715497
262.91586 23.286388 0.74324697
262.70239 23.306345 0.69688976
262.48563 23.31336 0.64961916
262.26672 23.307426 0.60741723
262.78915 23.301815 0.74440527
262.57529 23.29978 0.70010662
262.3576 23.308821 0.65584749
262.134 23.314993 0.61869901
262.66406 23.300201 0.74357486
262.44647 23.308254 0.70431769
262.22681 23.314339 0.66310072
261.9993 23.322598 0.63001531
262.5369 23.293629 0.74379218
262.31378 23.321804 0.7095843
262.09109 23.322958 0.67243189
261.86545 23.320187 0.64234096
262.40247 23.32221 0.74705344
262.18372 23.317299 0.71384746
261.95905 23.3165 0.6807344
261.72382 23.330929 0.65576977
262.27234 23.317696 0.74731725
262.0535 23.305792 0.71712959
261.82224 23.320137 0.68909639
261.58688 23.325573 0.66715544
262.14404 23.305141 0.74656808
261.91486 23.319462 0.72449946
261.68433 23.318794 0.69848889
261.44128 23.336393 0.6816532
262.00629 23.316784 0.74992669
261.77792 23.321089 0.72886741
261.54163 23.327549 0.7089408
261.29657 23.340197 0.69615239
261.87027 23.317385 0.75128055
261.63705 23.323799 0.7363013
261.39307 23.34342 0.72047746
261.15448 23.326944 0.70964557
261.73325 23.316008 0.75365686
261.49039 23.337622 0.7438094
261.24817 23.341215 0.73099333
261.58917 23.313765 0.75615668
261.34445 23.33643 0.75134033
261.43674 23.339699 0.76273638
261.19943 23.331217 0.75786489
261.29169 23.336475 0.76525623
261.14273 23.338329 0.76883149
263.5448 23.287573 1.1894222
263.42056 23.272955 1.1936085
263.29395 23.284405 1.204776
263.16675 23.31588 1.2199066
263.04233 23.290266 1.2251221
262.91486 23.307741 1.2392905
262.78287 23.346319 1.2584879
263.41986 23.286976 1.195588
263.29681 23.285328 1.1967227
263.38406 23.274418 1.1062237
263.17209 23.298723 1.2008513
263.48053 23.325346 1.0174202
263.25745 23.294846 1.1083684
263.04813 23.300097 1.2029952
263.35437 23.277714 1.0047147
263.13239 23.29323 1.107538
262.9231 23.298491 1.2051643
263.22626 23.278149 1.0009311
263.00638 23.296635 1.1067114
262.79639 23.310928 1.2113299
263.09674 23.303631 1.0021144
262.88019 23.290041 1.1059116
262.67227 23.304306 1.2144949
262.97021 23.284025 0.99535036
262.74966 23.311552 1.1111223
262.54355 23.314783 1.2207004
262.83841 23.297543 0.99460065
262.61978 23.31904 1.1133536
262.41461 23.31526 1.2259326
262.70663 23.310066 0.9958533
262.4906 23.311506 1.1136081
262.28479 23.320759 1.2331686
262.57526 23.296562 0.99215907
262.35785 23.321058 1.1188855
262.15097 23.326336 1.2404736
262.44324 23.298082 0.99144143
262.2258 23.319586 1.1211754
262.02185 23.317814 1.24573
262.30365 23.31876 0.99481046
262.08899 23.327213 1.1265272
261.88794 23.317392 1.254051
262.16858 23.31834 0.99514991
261.95306 23.328821 1.130878
261.75482 23.307951 1.2603791
262.0314 23.310961 0.99554265
261.81885 23.317392 1.1342291
261.61981 23.302547 1.2677307
261.88766 23.32272 1.0000046
261.67789 23.317099 1.1396713
261.47525 23.316347 1.2812034
261.74747 23.314396 1.0004518
261.53598 23.316828 1.1471305
261.32385 23.336281 1.2957807
261.60153 23.317194 1.0039726
261.38156 23.339809 1.1577522
261.18085 23.330038 1.3062727
261.44702 23.338169 1.0116001
261.23361 23.338655 1.1653177
261.29501 23.337084 1.0162351
261.09991 23.302208 1.1677185
261.14679 23.324921 1.0198307
263.44034 23.303061 0.62510884
263.50967 23.680666 0.5730139
263.31845 23.25938 0.62532163
263.38681 23.246853 0.54315478
263.19482 23.275761 0.63142467
263.4632 23.336199 0.46461058
263.26404 23.257208 0.54625702
263.07117 23.289141 0.63753575
263.33945 23.252529 0.4579488
263.13901 23.257597 0.54742092
262.94977 23.268463 0.64068651
263.42471 23.250635 0.3584615
263.21442 23.254913 0.4561078
263.01501 23.258968 0.54856491
262.82132 23.29294 0.64785427
263.29944 23.243011 0.35364774
263.09027 23.251278 0.45426559
262.89023 23.268362 0.55170441
262.69473 23.310381 0.65500629
263.17334 23.243408 0.34882984
262.96445 23.263681 0.45341495
262.76242 23.277813 0.5548957
262.5715 23.296741 0.65917271
263.04651 23.257822 0.34499156
262.83835 23.261087 0.45260444
262.62039 23.375568 0.56412673
262.43994 23.314278 0.66641104
262.91934 23.256237 0.34019625
262.67062 23.527374 0.46588582
262.50681 23.296717 0.56127828
262.31021 23.32478 0.67463344
262.78854 23.27273 0.33642167
262.57513 23.306124 0.45305648
262.37582 23.298225 0.56454283
262.18216 23.318237 0.67986727
262.61224 23.568165 0.34178206
262.44778 23.29055 0.45229807
262.2468 23.295696 0.56678367
262.05304 23.309717 0.68612355
262.52576 23.294733 0.32991913
262.3186 23.284014 0.4515501
262.11212 23.311285 0.57207948
261.91742 23.323334 0.6944415
262.39355 23.289246 0.32522088
262.18198 23.30463 0.45286766
261.97809 23.307854 0.57540917
261.78629 23.313852 0.70073503
262.25952 23.292799 0.32253274
262.04599 23.30723 0.45321628
261.84033 23.319498 0.57976764
261.64847 23.317507 0.70911431
262.12445 23.294369 0.31886742
261.9071 23.315884 0.45360067
261.70337 23.319128 0.58514088
261.50772 23.325222 0.71853453
261.98163 23.309092 0.31630525
261.77005 23.314505 0.45497715
261.56146 23.32185 0.58959246
261.36304 23.336012 0.72801578
261.83783 23.323833 0.31376037
261.62994 23.310181 0.45541358
261.41949 23.322573 0.59404945
261.22296 23.326708 0.73646444
261.7005 23.311447 0.31116688
261.48792 23.309896 0.45687369
261.27271 23.330395 0.60057372
261.07617 23.330538 0.74599892
261.55444 23.313231 0.30869132
261.33521 23.32682 0.45847824
261.12473 23.329235 0.60613954
261.40741 23.316032 0.30623037
261.18427 23.330708 0.4600831
261.25537 23.319929 0.30385306
261.10031 23.320885 0.30153558
263.51117 23.70042 0.1168719
263.3876 23.246719 0.12607761
263.43582 23.528666 0.056570522
263.26556 23.242064 0.13120249
263.31647 23.242912 0.064309314
263.14157 23.239445 0.13635653
263.37506 23.232605 -0.0056920908
263.19348 23.245266 0.065433323
263.01596 23.25786 0.14148891
263.43927 23.211157 -0.08676596
263.25113 23.239967 -0.0075637326
263.0676 23.252674 0.066595756
262.89294 23.254223 0.14662838
263.29202 23.861988 -0.12474949
263.12708 23.241329 -0.010419159
262.94363 23.255047 0.068736888
262.76434 23.272697 0.15181254
263.16901 23.595306 -0.11799234
262.9993 23.257765 -0.013245692
262.81766 23.256456 0.069915377
262.5954 23.535984 0.1561206
263.04865 23.419579 -0.11549551
262.87332 23.263166 -0.015077443
262.63626 23.608974 0.065228261
262.50696 23.299644 0.16220765
262.93301 23.283766 -0.11417467
262.55826 23.290422 0.072327495
262.37799 23.300119 0.16644016
262.87009 22.798931 -0.093943797
262.42926 23.291889 0.073557794
262.24619 23.306652 0.17170827
262.82724 22.318716 -0.07307177
262.29733 23.297413 0.074829176
262.11435 23.313185 0.17697637
262.69748 22.449186 -0.085133061
262.30197 23.534075 -0.034823254
262.16534 23.297939 0.076113954
261.98135 23.310738 0.18228583
262.64706 22.156126 -0.073570415
262.23169 23.251387 -0.026941422
262.02954 23.310537 0.077435672
261.84171 23.327421 0.18666543
262.59848 21.910032 -0.064150564
261.89163 23.316175 0.078810655
261.71048 23.312939 0.19197249
262.54233 21.742086 -0.059783388
261.75836 23.303722 0.080147505
261.56863 23.318663 0.19741593
262.47531 21.635351 -0.057372015
261.70743 23.633408 -0.049763821
261.61841 23.3074 0.081562378
261.42963 23.31633 0.202829
262.44342 21.425943 -0.049327347
261.68939 23.254715 -0.037560821
261.47452 23.313152 0.083040975
261.28094 23.331188 0.20836923
262.40451 21.26967 -0.044285979
261.46246 23.483057 -0.050169405
261.33337 23.30685 0.084499896
261.13208 23.335047 0.21393889
262.36121 21.146486 -0.040246494
261.54276 22.90447 -0.030198909
261.16718 23.352032 0.08427152
262.31424 21.04237 -0.038188495
261.56967 22.521921 -0.016765215
261.05457 23.267176 0.087420948
262.29141 20.889791 -0.032434277
261.47229 22.451767 -0.016914474
262.2785 20.73103 -0.024836967
261.41544 22.300833 -0.0135754
262.26004 20.59837 -0.0202052
261.39166 22.098267 -0.0076872967
262.23605 20.491817 -0.016539307
261.34778 21.946083 -0.0045700143
262.21509 20.386209 -0.012927878
261.27606 21.85644 -0.0031176696
262.19714 20.281544 -0.0083710793
261.25394 21.687845 0.001662286
262.17355 20.195986 -0.0057612602
261.16876 21.629459 0.0012736717
262.15585 20.106314 -0.0032443195
261.18292 21.423166 0.007513491
262.12756 20.037846 -0.0015935164
261.15646 21.290659 0.011283545
261.11346 21.185465 0.013275151
261.08426 21.068008 0.016057
261.04147 20.973814 0.01801914
261.06152 20.547382 0.029674564
261.08093 20.407 0.034668755
261.0759 20.299082 0.037009414
261.0513 20.107529 0.041885469
261.05536 20.003441 0.04505986
263.67053 21.82444 -0.10251841
263.58002 21.848183 -0.099006303
263.60068 21.565742 -0.096700549
263.48935 21.863926 -0.095472805
263.61972 21.247341 -0.088282019
263.51691 21.523346 -0.09215001
263.39838 21.861677 -0.09089122
263.63474 20.930008 -0.083796509
263.54254 21.183813 -0.084796004
263.43439 21.493929 -0.087651566
263.30637 21.859446 -0.086292401
263.56403 20.837357 -0.078354001
263.46738 21.120249 -0.080344647
263.35291 21.467487 -0.085178107
263.21375 21.877228 -0.08272969
263.49643 20.75264 -0.074984431
263.39603 21.04661 -0.075935595
263.27145 21.443047 -0.08171016
263.12186 21.880993 -0.07914678
263.43359 20.651838 -0.068658791
263.32632 21.00894 -0.073639892
263.19208 21.421566 -0.079284638
263.02661 21.920822 -0.077590875
263.37607 20.568933 -0.064467393
263.26028 20.953199 -0.070365228
263.11725 21.375998 -0.074881479
262.93613 21.891563 -0.070954584
263.32138 20.476974 -0.059303839
263.20117 20.837326 -0.063068666
263.0415 21.334448 -0.070471764
262.85391 21.82214 -0.063366771
263.26816 20.411985 -0.056229554
263.14365 20.752426 -0.0568722
262.96497 21.304911 -0.068076611
262.75912 21.831963 -0.059748106
263.21692 20.344961 -0.053184431
263.08194 20.7166 -0.055719838
262.89493 21.248251 -0.062730506
262.65973 21.863871 -0.058101714
263.1741 20.244776 -0.047206812
263.02853 20.639618 -0.051613577
262.82877 21.183517 -0.057432052
262.56738 21.843643 -0.053454697
263.12894 20.181635 -0.044276021
262.97543 20.579632 -0.047552813
262.75903 21.142851 -0.054128468
262.47052 21.848503 -0.049788117
263.09131 20.094349 -0.039419394
262.9299 20.495499 -0.042566098
262.69498 21.085075 -0.04988312
262.3764 21.840309 -0.046138532
263.05035 20.042128 -0.037586953
262.88184 20.438414 -0.039599553
262.63385 21.024242 -0.045681559
262.29163 21.796934 -0.040568225
262.83667 20.374275 -0.035666216
262.57571 20.961353 -0.040526576
262.19455 21.790798 -0.036872189
262.80109 20.287951 -0.030846817
262.52237 20.886374 -0.035425819
262.10889 21.753441 -0.031300679
262.76663 20.208607 -0.026063411
262.45773 20.852606 -0.033227164
262.0213 21.720119 -0.026705179
262.72852 20.147333 -0.022258993
262.40079 20.801693 -0.03012128
261.92603 21.703947 -0.023016905
262.69244 20.090019 -0.019499654
262.35922 20.715487 -0.024198426
261.87592 21.586905 -0.014873219
262.65259 20.043777 -0.017700547
262.31494 20.644333 -0.019263767
261.77588 21.583824 -0.011133431
262.27066 20.575176 -0.015334327
261.67484 21.57976 -0.0083735334
262.22559 20.516035 -0.011414379
261.57748 21.560623 -0.005642544
262.17471 20.469007 -0.0084228078
261.50146 21.505079 -0.00019549848
262.12872 20.414883 -0.0054988428
261.41092 21.473812 0.0034465871
262.08377 20.36274 -0.002597488
261.33099 21.423342 0.0079494659
262.04367 20.303501 0.00023627545
261.25793 21.363739 0.013355407
262.00363 20.247267 0.0040618405
261.17999 21.312231 0.017826427
261.97531 20.174803 0.0077230516
261.09229 21.273909 0.021435464
261.93341 20.125603 0.010564574
261.9003 20.066231 0.013277452
261.86035 20.015989 0.015087268
261.01318 20.890268 -0.13429786
263.65125 20.730722 -0.067582697
263.58743 20.738964 -0.064511314
263.61136 20.948524 -0.073229328
263.52277 20.755224 -0.062437322
263.63623 21.099068 -0.074875385
263.54016 20.938906 -0.071006589
263.45532 20.785536 -0.061337709
263.66498 21.190525 -0.077499174
263.56348 21.059473 -0.072581388
263.47253 20.903217 -0.065804966
263.38846 20.789837 -0.058208238
263.5889 21.079987 -0.072043136
263.49207 20.982851 -0.067254677
263.40189 20.922586 -0.06663432
263.32077 20.805155 -0.056081604
263.5181 20.983347 -0.067697011
263.42328 20.941179 -0.065024815
263.33609 20.877863 -0.061450295
263.25211 20.822491 -0.053941648
263.44949 20.898666 -0.06340652
263.3573 20.888453 -0.061826024
263.26776 20.860188 -0.058264039
263.17578 20.856977 -0.052696791
263.38254 20.793953 -0.058113825
263.29175 20.804718 -0.055588443
263.1983 20.834532 -0.055046353
263.1076 20.846302 -0.04852337
263.32382 20.704081 -0.053983711
263.22977 20.751913 -0.052457418
263.1347 20.801764 -0.05191765
263.03406 20.868732 -0.047307611
263.2691 20.612129 -0.049917731
263.17172 20.696032 -0.049388722
263.07205 20.765978 -0.047800615
262.96497 20.862078 -0.043124478
263.21558 20.531157 -0.046888471
263.11649 20.630096 -0.045352884
263.01141 20.73115 -0.044719115
262.89221 20.874491 -0.040907696
263.16614 20.455105 -0.042936198
263.0643 20.567101 -0.041373324
262.94995 20.705341 -0.041636977
262.82675 20.847763 -0.035756268
263.11978 20.382996 -0.040041842
263.01883 20.487976 -0.036483519
262.89041 20.675493 -0.038581491
262.754 20.860176 -0.034539342
263.08002 20.288755 -0.035226531
262.96884 20.434938 -0.033555798
262.83652 20.627535 -0.034595195
262.69135 20.821394 -0.028417159
263.0452 20.19042 -0.030488705
262.91711 20.395935 -0.031619418
262.77795 20.596668 -0.031554829
262.61838 20.822809 -0.026180455
263.00406 20.13121 -0.027702607
262.87671 20.321711 -0.02782324
262.73074 20.530579 -0.026654696
262.54248 20.827284 -0.023898356
262.9772 20.030722 -0.022096848
262.84033 20.24641 -0.023093183
262.68658 20.466433 -0.020809157
262.4675 20.826742 -0.020624284
262.80307 20.179125 -0.019360511
262.63297 20.433468 -0.01884974
262.40103 20.800032 -0.016455775
262.76883 20.110785 -0.014677001
262.57553 20.410578 -0.016840663
262.33746 20.768263 -0.012329025
262.73184 20.059494 -0.011973177
262.52768 20.365501 -0.013961315
262.26425 20.756683 -0.0090689193
262.69202 20.015261 -0.010231044
262.47412 20.334538 -0.011005664
262.20554 20.714823 -0.004008933
262.42538 20.294479 -0.0081184441
262.12262 20.72043 -0.0026098967
262.38824 20.234194 -0.0043984498
262.06097 20.683626 0.0024918788
262.3425 20.193077 -0.0015602321
262.00415 20.638725 0.0065235556
262.30258 20.143845 0.0011907971
261.93277 20.617109 0.0097678835
262.25397 20.110785 0.0040653562
261.83221 20.641062 0.01043944
262.21017 20.068628 0.0058716401
261.75781 20.619503 0.013734598
262.17908 20.010225 0.009486353
261.69217 20.582775 0.017904274
261.63824 20.531818 0.02289586
261.59018 20.473747 0.027798446
261.52063 20.444094 0.031023378
261.42944 20.43486 0.032585125
261.32062 20.444969 0.033417579
261.27643 20.379822 0.038265087
261.21457 20.333017 0.042385101
261.16449 20.274984 0.046321735
261.07315 20.256752 0.048899636
261.026 20.193661 0.052794479
263.64407 23.08522 -0.11495838
263.52554 23.214539 -0.11513796
263.40115 23.242964 -0.10906774
263.27069 23.375515 -0.10904945
263.50757 23.227079 -0.0098360777
263.14493 23.329958 -0.098845802
263.38168 23.235519 -0.0097118244
263.0079 23.432634 -0.096671805
263.4364 23.238527 0.02736049
263.2569 23.249935 -0.010615236
262.90237 23.23867 -0.080590688
263.31241 23.244923 0.02345505
263.13028 23.271389 -0.011497424
262.93954 23.37603 -0.051421028
262.74811 23.43469 -0.082262598
263.1882 23.241316 0.018567881
262.95074 23.779926 -0.030206695
262.61362 23.45731 -0.076012097
263.06311 23.241732 0.014690267
262.88443 23.232141 -0.011266103
262.44318 23.644644 -0.076396771
262.9353 23.2582 0.009834649
262.35327 23.430372 -0.060550522
262.36157 23.643272 -0.049005788
262.19421 23.530478 -0.056998488
262.37421 23.870096 -0.03555445
262.31433 23.253147 -0.030622421
262.02548 23.647772 -0.054307669
262.34933 23.345509 -0.018351858
261.7858 23.983463 -0.060737658
262.36395 23.532261 -0.018876892
261.75574 23.601013 -0.038657404
262.29166 23.256617 -0.014240483
261.75415 23.780071 -0.041896414
261.72177 23.277643 -0.019598836
261.75574 23.966072 -0.044199087
261.75671 23.327972 -0.022266978
261.34671 23.911997 -0.034174442
261.75299 23.502064 -0.029462473
261.40646 23.90283 -0.039175969
261.20026 23.883842 -0.025645476
261.76346 23.64286 -0.044851191
261.59937 23.527039 -0.031892344
261.23602 23.933138 -0.037327446
261.17535 23.563297 -0.0077446909
261.74139 23.27223 -0.03692618
261.44168 23.54809 -0.034247197
261.18796 23.662041 -0.02510789
261.14529 23.288857 0.0081747379
261.68402 23.044306 -0.033613764
261.3642 23.364565 -0.028658958
261.17294 23.339294 -0.011372337
261.69199 22.673098 -0.024197329
261.30142 23.165754 -0.023297699
261.66626 22.426558 -0.019394793
261.28119 22.889109 -0.014543068
261.64868 22.185862 -0.013738795
261.26053 22.642475 -0.0068256753
261.6199 21.988388 -0.010956939
261.24506 22.406742 -0.00021276392
261.62433 21.746267 -0.0046720393
261.20383 22.236517 0.0047401707
261.5972 21.583767 -0.0019704942
261.15894 22.083364 0.0087302476
261.57611 21.42215 0.00062757701
261.1055 21.956381 0.011825852
261.54742 21.283682 0.002319685
261.06967 21.808054 0.015654385
261.54132 21.119774 0.005667075
261.04761 21.646458 0.020269101
261.54031 20.961771 0.0089188963
261.02872 21.492804 0.024818514
261.55212 20.793518 0.01396827
261.57101 20.629129 0.017891953
261.58621 20.479815 0.02185623
261.57709 20.369972 0.023173898
261.59647 20.231577 0.027050495
261.56604 20.158154 0.027675861
261.54935 20.070461 0.028089374
263.54239 23.484968 0.27423173
263.41986 23.250303 0.27766007
263.49219 23.255033 0.34943566
263.2998 23.244637 0.28370714
263.56879 23.668795 0.4405354
263.37311 23.250345 0.35346425
263.17685 23.242031 0.29179934
263.44531 23.250072 0.42224932
263.24994 23.238735 0.35757333
263.0502 23.254499 0.29993212
263.51758 23.455845 0.49572837
263.32217 23.244457 0.42334795
263.12122 23.251238 0.36274046
262.92047 23.26403 0.30912104
263.39224 23.246208 0.48216474
263.19525 23.248919 0.42549613
262.99454 23.264706 0.36887172
262.79114 23.292555 0.31827557
263.26929 23.253584 0.47924042
263.07031 23.25234 0.42661235
262.86957 23.265131 0.37299293
262.65869 23.31414 0.32749358
263.14615 23.249964 0.47733587
262.94537 23.255764 0.42872843
262.68521 23.64481 0.39356247
262.53345 23.296577 0.33564681
263.02112 23.25238 0.47545433
262.81897 23.288219 0.43082589
262.61426 23.295099 0.38428408
262.4075 23.295031 0.343788
262.89645 23.272797 0.47454005
262.68124 23.350908 0.43607187
262.48618 23.288588 0.38946867
262.27481 23.305616 0.35302594
262.73248 23.52404 0.48695287
262.56396 23.287165 0.43515724
262.35538 23.295132 0.3956804
262.14011 23.314245 0.36330122
262.63794 23.303804 0.47288212
262.43298 23.289705 0.4373768
262.22345 23.297697 0.40091646
262.00433 23.318893 0.37360072
262.5097 23.296282 0.47106954
262.29929 23.304302 0.44062528
262.09055 23.29928 0.40717113
261.8685 23.321541 0.38290396
262.37958 23.292797 0.46928358
262.16733 23.30686 0.44286177
261.94708 23.323076 0.41457218
261.72968 23.324247 0.39325789
262.2457 23.302389 0.46854174
262.02957 23.318537 0.44618347
261.81113 23.320721 0.42188478
261.59167 23.316936 0.403613
262.10889 23.314039 0.46784705
261.88974 23.32625 0.44954631
261.67596 23.309347 0.42819685
261.44986 23.318703 0.41501942
261.96912 23.328749 0.46819767
261.74945 23.31097 0.45395067
261.52521 23.317282 0.43674535
261.29327 23.330761 0.42866158
261.82877 23.312464 0.46860442
261.60757 23.315725 0.45735282
261.37558 23.331198 0.44526604
261.14444 23.332663 0.44018662
261.68771 23.313192 0.46799743
261.46454 23.313499 0.46078461
261.22479 23.337133 0.45381814
261.54565 23.311941 0.46741104
261.31097 23.334486 0.46536094
261.39389 23.326883 0.46796495
261.15997 23.333416 0.4699263
261.24005 23.337864 0.46855998
263.466 23.26247 0.86194348
263.55392 23.746126 1.0097556
263.34134 23.272903 0.87204564
263.43353 23.269251 0.94549662
263.21664 23.283337 0.8811481
263.52039 23.293718 1.0249976
263.31064 23.27264 0.95057833
263.08932 23.309828 0.89327186
263.39893 23.272064 1.0240916
263.18494 23.283091 0.95869786
262.965 23.289244 0.90041375
263.48737 23.285479 1.0925802
263.27609 23.280451 1.0281645
263.05936 23.29854 0.96780807
262.8374 23.301739 0.91256291
263.3642 23.27986 1.0916791
263.1496 23.301916 1.0342813
262.93222 23.289009 0.97298121
262.70386 23.31535 0.92581177
263.24136 23.289242 1.0927507
263.0253 23.288322 1.0364112
262.80463 23.303501 0.98312706
262.57782 23.306807 0.93596542
263.11517 23.327705 1.0998365
262.90042 23.29175 1.0415268
262.6759 23.312012 0.99230081
262.44824 23.320339 0.94814664
262.99728 23.288967 1.0928944
262.77399 23.316216 1.048638
262.55273 23.299404 0.99841136
262.31458 23.326956 0.96240795
262.87057 23.304428 1.0960225
262.64783 23.307663 1.0527924
262.42017 23.313993 1.0096418
262.18356 23.31951 0.97364432
262.7438 23.31489 1.0991596
262.5199 23.308149 1.0579644
262.28754 23.325584 1.0208776
262.04984 23.322126 0.98791301
262.61853 23.302315 1.0993049
262.38919 23.318697 1.0661685
262.15454 23.320177 1.0311444
261.91293 23.316801 1.0022469
262.48688 23.318874 1.1045157
262.25537 23.324301 1.0734328
262.02069 23.320786 1.0414172
261.7771 23.315458 1.0175565
262.35504 23.325436 1.1087446
262.12247 23.323889 1.080691
261.88477 23.317436 1.052731
261.6355 23.323231 1.0339514
262.22589 23.318939 1.1109465
261.98672 23.331533 1.0899851
261.74509 23.324167 1.0660943
261.48608 23.339161 1.0534668
262.09106 23.32556 1.1162262
261.8526 23.322142 1.0972766
261.60526 23.323896 1.0784702
261.34326 23.335957 1.0708984
261.9552 23.3302 1.1215264
261.71564 23.318808 1.1056077
261.45392 23.345861 1.096009
261.19553 23.336849 1.0884074
261.82193 23.314785 1.1248124
261.57385 23.323572 1.1160089
261.31195 23.337633 1.1094332
261.68207 23.319504 1.1311802
261.42435 23.338493 1.129527
261.16702 23.332462 1.1229029
261.53641 23.331341 1.1396368
261.2756 23.344397 1.1410447
261.39157 23.336161 1.1470891
261.13068 23.341221 1.1515113
261.24176 23.341076 1.1556261
263.49234 23.539221 0.97710305
263.37454 23.272388 0.9424932
263.44629 23.325871 0.86618459
263.25082 23.284796 0.9485755
263.32504 23.268196 0.8603276
263.12711 23.296206 0.95465958
263.40759 23.270437 0.77090991
263.20102 23.2686 0.86143231
263.00507 23.290577 0.95974064
263.28333 23.261835 0.76803148
263.07462 23.297062 0.8665365
262.88098 23.285984 0.96385401
263.37454 23.258883 0.6644724
263.15753 23.274275 0.76814848
262.95215 23.274429 0.86664915
262.75449 23.306454 0.97297215
263.2467 23.270355 0.6616255
263.02835 23.314791 0.772282
262.82455 23.293911 0.87178671
262.62692 23.322943 0.98211449
263.1188 23.280827 0.65878052
262.90442 23.274172 0.76644504
262.69498 23.312433 0.87695986
262.50266 23.307354 0.98624772
262.99075 23.2843 0.65494829
262.77399 23.302708 0.76961732
262.57159 23.293821 0.8790819
